1910 2084
  -0.0425822    -0.388517     0.620977
 -0.00564786    -0.388517     0.660886
   0.0342611    -0.388517     0.626935
   0.0938191    -0.388517     0.604311
    0.148031    -0.388517     0.563799
    0.183767    -0.388517      0.50601
    0.220106    -0.388517     0.459556
    0.279086    -0.388517       0.4935
    0.323159    -0.388517     0.469083
    0.322564    -0.388517     0.430356
    0.264783    -0.388517     0.371996
    0.191517    -0.388517     0.208783
    0.162928    -0.388517     0.180185
    0.125986    -0.388517     0.170055
   0.0848789    -0.388517     0.194488
 -0.00148334    -0.388517     0.193298
 -0.00148331    -0.454419     0.490533
  -0.0556949    -0.454419     0.483973
   -0.148015    -0.454419     0.426192
   -0.161722    -0.454419     0.321949
   -0.167085    -0.454419     0.211154
   -0.235583    -0.454419     0.206387
   -0.265957    -0.454419     0.268936
   -0.275492    -0.454419     0.370806
   -0.286804    -0.454419     0.430356
   -0.266552    -0.454419     0.464919
   -0.226056    -0.454419     0.490533
   -0.177199    -0.454419     0.495888
   -0.158145    -0.454419     0.539969
   -0.114055    -0.454419     0.570351
  -0.0592565    -0.454419     0.576896
  -0.0014833    -0.454419     0.626935
   0.0515304    -0.454419     0.579878
    0.107527    -0.454419     0.570351
    0.140288    -0.454419     0.543539
    0.173653    -0.454419     0.495888
    0.218917    -0.454419     0.491723
    0.255851    -0.454419     0.469083
     0.28563    -0.454419     0.429182
    0.275508    -0.454419     0.373773
    0.261205    -0.454419     0.258813
    0.231418    -0.454419     0.211154
    0.174835    -0.454419     0.211154
    0.158169    -0.454419     0.321949
    0.124788    -0.454419     0.432752
   0.0515304    -0.454419     0.484568
 -0.00148331    -0.454419     0.490533
 0.000904479    -0.520337     0.578093
  -0.0556949    -0.520337     0.559031
   -0.155765    -0.520337       0.4935
   -0.183759    -0.520337     0.382721
   -0.192691    -0.520337     0.244519
   -0.257033    -0.520337     0.243321
   -0.274302    -0.520337     0.278479
   -0.265957    -0.520337     0.333872
   -0.283234    -0.520337     0.391653
   -0.275492    -0.520337     0.452401
   -0.241532    -0.520337      0.50006
   -0.178397    -0.520337     0.536995
   -0.148015    -0.520337     0.594768
  -0.0866637    -0.520337     0.607873
  -0.0622472    -0.520337      0.64541
 -0.00267317    -0.520337     0.666844
   0.0562979    -0.520337     0.643022
    0.084879    -0.520337     0.607873
     0.15041    -0.520337     0.594768
    0.191517    -0.520337     0.531632
    0.232616    -0.520337     0.502448
    0.272525    -0.520337     0.449434
    0.272525    -0.520337     0.385093
    0.248101    -0.520337     0.329699
    0.260015    -0.520337     0.279668
    0.240366    -0.520337     0.242131
    0.177215    -0.520337     0.244519
    0.171257    -0.520337     0.381523
    0.128374    -0.520337       0.4935
   0.0562979    -0.520337     0.552479
 0.000904479    -0.520337     0.578093
 -0.00564786    -0.586246     0.601328
   -0.119425    -0.586246     0.555462
   -0.177199    -0.586246     0.497086
   -0.200433    -0.586246     0.382721
   -0.191501    -0.586246     0.242131
   -0.240342    -0.586246     0.240949
   -0.263569    -0.586246     0.279668
   -0.246887    -0.586246     0.329699
   -0.262387    -0.586246     0.391653
   -0.237955    -0.586246     0.439304
    -0.23498    -0.586246      0.50363
   -0.184957    -0.586246     0.552479
   -0.176017    -0.586246     0.600138
   -0.112865    -0.586246     0.619192
  -0.0735591    -0.586246     0.648979
 -0.00921747    -0.586246     0.662084
   0.0515304    -0.586246     0.650177
    0.105139    -0.586246     0.624555
    0.155773    -0.586246     0.607873
    0.174835    -0.586246     0.551289
    0.217132    -0.586246        0.509
    0.229047    -0.586246     0.442874
    0.257033    -0.586246     0.389265
    0.242738    -0.586246     0.326122
    0.257033    -0.586246      0.28085
    0.240366    -0.586246     0.239751
    0.187337    -0.586246     0.239751
    0.191517    -0.586246     0.383895
    0.169473    -0.586246     0.499465
    0.100379    -0.586246     0.553677
 -0.00564786    -0.586246     0.601328
 -0.00387109    -0.652163     0.620977
   -0.121805    -0.652163     0.575706
   -0.178991    -0.652163      0.51495
   -0.208176    -0.652163     0.426192
   -0.210555    -0.652163     0.264168
   -0.226056    -0.652163     0.264168
   -0.243325    -0.652163      0.28442
   -0.229022    -0.652163     0.338632
   -0.239152    -0.652163     0.401775
   -0.217124    -0.652163     0.449434
   -0.217124    -0.652163      0.50601
   -0.170654    -0.652163     0.548901
   -0.146238    -0.652163     0.604311
   -0.103338    -0.652163      0.61026
  -0.0658168    -0.652163      0.64541
 -0.00921748    -0.652163     0.648979
    0.035451    -0.652163     0.646592
   0.0771448    -0.652163     0.615623
    0.142668    -0.652163     0.604311
    0.173653    -0.652163     0.551289
    0.214736    -0.652163      0.51257
    0.215934    -0.652163     0.449434
    0.246903    -0.652163     0.386283
    0.232616    -0.652163     0.336244
    0.243333    -0.652163     0.295145
    0.234996    -0.652163     0.262986
    0.211166    -0.652163     0.255244
    0.201647    -0.652163     0.432752
    0.172455    -0.652163     0.516735
    0.111699    -0.652163     0.579283
 -0.00387109    -0.652163     0.620977
   -0.417617    -0.142013   -0.0535603
   -0.421846    -0.153494    -0.117781
   -0.472609    -0.153494   -0.0801556
   -0.451987    -0.153494   -0.0425379
   -0.422385    -0.153494   -0.0328099
   -0.361573    -0.153494    -0.062002
    -0.36052    -0.153494   -0.0989684
   -0.421846    -0.153494    -0.117781
   -0.448281    -0.182187    -0.135935
   -0.497459    -0.182187   -0.0950772
   -0.498513    -0.182187   -0.0594052
   -0.427659    -0.182187   -0.0328099
   -0.390122    -0.182187   -0.0645907
   -0.356821    -0.182187   -0.0606915
   -0.379558    -0.182187    -0.111945
   -0.448281    -0.182187    -0.135935
   -0.430312    -0.210889    -0.116487
   -0.466788    -0.210889   -0.0853573
   -0.427659    -0.210889   -0.0380035
   -0.418687    -0.210889   -0.0652339
   -0.400171    -0.210889   -0.0840468
   -0.430312    -0.210889    -0.116487
   -0.426614    -0.268284    -0.115828
   -0.465743    -0.268284   -0.0704275
   -0.430312    -0.268284   -0.0522659
   -0.399118    -0.268284   0.00676143
   -0.393828    -0.268284   -0.0438403
   -0.363695    -0.268284     -0.07497
   -0.390122    -0.268284    -0.106108
   -0.426614    -0.268284    -0.115828
   -0.416564    -0.325672    -0.100914
   -0.464143    -0.325672   -0.0645907
   -0.433488    -0.325672   -0.0282675
   -0.396996    -0.325672   0.00676143
   -0.372161    -0.325672    0.0599359
   -0.379558    -0.325672   -0.0704276
   -0.416564    -0.325672    -0.100914
   -0.416564    -0.325672    -0.100914
   -0.464143    -0.325672   -0.0645907
   -0.433488    -0.325672   -0.0282675
   -0.396996    -0.325672   0.00676143
   -0.388007    -0.325672     0.102104
    -0.40969    -0.325672      0.20978
   -0.390122    -0.325672     0.259079
   -0.367393    -0.325672     0.195509
   -0.379558    -0.325672   -0.0704276
   -0.416564    -0.325672    -0.100914
   -0.404931    -0.383051   -0.0704275
    -0.41445    -0.383051   -0.0438403
   -0.373206    -0.383051    0.0878416
   -0.369508    -0.383051     0.232492
   -0.324035    -0.383051     0.153992
   -0.351001    -0.383051    0.0878416
   -0.373206    -0.383051   -0.0522659
   -0.404931    -0.383051   -0.0704275
   -0.402816    -0.497849   -0.0821012
    -0.41445    -0.497849   -0.0496771
   -0.379557    -0.497849    0.0372479
   -0.346772    -0.497849     0.177991
   -0.298654    -0.497849     0.092376
   -0.329848    -0.497849    0.0540991
   -0.357882    -0.497849    0.0359455
   -0.379558    -0.497849   -0.0645907
   -0.402816    -0.497849   -0.0821012
   -0.418687    -0.612616    -0.111945
   -0.426614    -0.612616   -0.0814419
   -0.382195    -0.612616    0.0333487
   -0.353638    -0.612616     0.172162
   -0.282792    -0.612616     0.105995
   -0.343081    -0.612616    0.0683696
   -0.362634    -0.612616    0.0223263
   -0.396996    -0.612616   -0.0905348
   -0.418687    -0.612616    -0.111945
    -0.41445    -0.698697    -0.091178
    -0.42872    -0.698697   -0.0606915
   -0.404931    -0.698697   -0.0114002
   -0.374259    -0.698697     0.224042
   -0.322444    -0.698697     0.203943
   -0.304467    -0.698697     0.144272
   -0.380088    -0.698697    0.0320543
   -0.393828    -0.698697   -0.0704275
    -0.41445    -0.698697    -0.091178
    -0.41445    -0.698697    -0.091178
    -0.42872    -0.698697   -0.0606915
   -0.404931    -0.698697   -0.0114002
   -0.374259    -0.698697     0.224042
   -0.262178    -0.698697     0.434207
   -0.189218    -0.698697      0.50166
   -0.132112    -0.698697     0.574307
  -0.0813576    -0.698697     0.584035
  -0.0612583    -0.698697     0.613878
 -0.00838939    -0.698697     0.632032
 -0.00838939    -0.698697     0.569121
  -0.0829333    -0.698697     0.534092
    -0.17863    -0.698697     0.421882
   -0.280677    -0.698697     0.271396
   -0.322444    -0.698697     0.203943
   -0.304467    -0.698697     0.144272
   -0.380088    -0.698697    0.0320543
   -0.393828    -0.698697   -0.0704275
    -0.41445    -0.698697    -0.091178
   -0.425545    -0.727398   -0.0866436
   -0.437186    -0.727398   -0.0483747
   -0.398057    -0.727398     0.102104
    -0.36634    -0.727398     0.292797
   -0.256365    -0.727398     0.438742
   -0.200313    -0.727398     0.515279
   -0.116772    -0.727398     0.591166
-0.000992882    -0.727398     0.622296
-0.000992889    -0.727398     0.546409
  -0.0898153    -0.727398     0.528256
   -0.195553    -0.727398     0.403721
    -0.24843    -0.727398     0.299937
   -0.369508    -0.727398    0.0975616
   -0.411813    -0.727398   -0.0367011
   -0.405992    -0.727398   -0.0568083
   -0.425545    -0.727398   -0.0866436
   -0.432426    -0.784793   -0.0295619
   -0.436117    -0.784793    0.0203807
   -0.402816    -0.784793     0.092376
   -0.349947    -0.784793     0.336268
   -0.214061    -0.784793     0.486095
   -0.114666    -0.784793     0.563276
 -0.00626692    -0.784793     0.587275
  -0.0046831    -0.784793     0.533433
  -0.0940442    -0.784793     0.521116
   -0.210893    -0.784793     0.408914
   -0.270113    -0.784793     0.270101
   -0.351001    -0.784793     0.184479
   -0.405992    -0.784793    0.0106446
   -0.432426    -0.784793   -0.0295619
   -0.396996    -0.842181     0.108592
   -0.408629    -0.842181     0.157891
   -0.349947    -0.842181     0.325229
   -0.261117    -0.842181     0.462089
   -0.147974    -0.842181     0.536689
  -0.0083894    -0.842181     0.564579
 -0.00468311    -0.842181     0.504249
  -0.0681323    -0.842181     0.502955
   -0.158024    -0.842181     0.458198
   -0.216714    -0.842181     0.369978
   -0.266407    -0.842181     0.334957
   -0.338845    -0.842181      0.20978
   -0.357882    -0.842181     0.144272
   -0.396996    -0.842181     0.108592
   -0.357882    -0.899568     0.220802
   -0.375321    -0.899568     0.238964
   -0.352592    -0.899568      0.33302
   -0.256365    -0.899568     0.471825
   -0.128414    -0.899568     0.550308
 -0.00204608    -0.899568     0.574307
 -0.00204609    -0.899568      0.49842
  -0.0586133    -0.899568     0.513985
   -0.156955    -0.899568     0.470523
   -0.204011    -0.899568     0.386202
   -0.285976    -0.899568     0.331717
   -0.327219    -0.899568     0.236367
   -0.357882    -0.899568     0.220802
   -0.315578    -0.956964     0.327818
   -0.316108    -0.956964     0.365444
   -0.244732    -0.956964      0.48025
   -0.114666    -0.956964      0.55096
 -0.00416856    -0.956964     0.569121
 -0.00310733    -0.956964      0.50166
  -0.0321788    -0.956964     0.526953
   -0.138463    -0.956964     0.493227
   -0.216175    -0.956964     0.446532
   -0.284914    -0.956964     0.351173
   -0.315578    -0.956964     0.327818
   -0.239442    -0.985649     0.419945
   -0.236805    -0.985649     0.462089
   -0.186573    -0.985649     0.515279
   -0.122601    -0.985649     0.553548
 -0.00416856    -0.985649     0.569121
  -0.0046831    -0.985649     0.530852
    -0.10091    -0.985649     0.522419
   -0.202966    -0.985649     0.446532
   -0.239442    -0.985649     0.419945
   -0.181283           -1      0.49063
   -0.109906           -1     0.536689
   -0.181283           -1      0.49063
   -0.431373    -0.196538      0.23377
    -0.42872    -0.210889     0.215616
   -0.436117    -0.210889     0.235072
   -0.430312    -0.210889     0.251932
   -0.421846    -0.210889     0.229879
    -0.42872    -0.210889     0.215616
   -0.404931    -0.268284     0.176053
    -0.41445    -0.268284      0.23377
   -0.404931    -0.268284     0.268807
   -0.393297    -0.268284      0.20978
   -0.404931    -0.268284     0.176053
   -0.388007    -0.325672     0.102104
    -0.40969    -0.325672      0.20978
   -0.390122    -0.325672     0.259079
   -0.367393    -0.325672     0.195509
   -0.388007    -0.325672     0.102104
    0.408267    -0.142013   -0.0535604
    0.412496    -0.153494    -0.117781
    0.463259    -0.153494   -0.0801557
    0.442645    -0.153494    -0.042538
    0.413027    -0.153494     -0.03281
    0.352223    -0.153494    -0.062002
    0.351161    -0.153494   -0.0989685
    0.412496    -0.153494    -0.117781
     0.43893    -0.182187    -0.135935
    0.488109    -0.182187   -0.0950773
     0.48917    -0.182187   -0.0594052
    0.418317    -0.182187     -0.03281
    0.380771    -0.182187   -0.0645908
    0.347471    -0.182187   -0.0606916
    0.370199    -0.182187    -0.111945
     0.43893    -0.182187    -0.135935
    0.420962    -0.210889    -0.116487
    0.457446    -0.210889   -0.0853574
    0.418317    -0.210889   -0.0380036
    0.409328    -0.210889    -0.065234
    0.390829    -0.210889   -0.0840468
    0.420962    -0.210889    -0.116487
    0.417264    -0.268284    -0.115828
    0.456385    -0.268284   -0.0704276
    0.420962    -0.268284    -0.052266
    0.389768    -0.268284   0.00676136
     0.38447    -0.268284   -0.0438404
    0.354337    -0.268284     -0.07497
    0.380771    -0.268284    -0.106108
    0.417264    -0.268284    -0.115828
    0.407222    -0.325672    -0.100914
    0.454793    -0.325672   -0.0645908
    0.424129    -0.325672   -0.0282676
    0.387653    -0.325672   0.00676136
    0.362795    -0.325672    0.0599358
    0.370199    -0.325672   -0.0704276
    0.407222    -0.325672    -0.100914
    0.407222    -0.325672    -0.100914
    0.454793    -0.325672   -0.0645908
    0.424129    -0.325672   -0.0282676
    0.387653    -0.325672   0.00676136
    0.378665    -0.325672     0.102104
    0.400332    -0.325672     0.209779
    0.380771    -0.325672     0.259079
    0.358035    -0.325672     0.195509
    0.370199    -0.325672   -0.0704276
    0.407222    -0.325672    -0.100914
    0.395589    -0.383051   -0.0704276
      0.4051    -0.383051   -0.0438404
    0.363864    -0.383051    0.0878416
    0.360158    -0.383051     0.232492
    0.314685    -0.383051     0.153992
    0.341642    -0.383051    0.0878416
    0.363864    -0.383051    -0.052266
    0.395589    -0.383051   -0.0704276
    0.393466    -0.497849   -0.0821012
      0.4051    -0.497849   -0.0496772
    0.370199    -0.497849    0.0372479
    0.337421    -0.497849     0.177991
    0.289312    -0.497849     0.092376
    0.320506    -0.497849     0.054099
    0.348524    -0.497849    0.0359454
    0.370199    -0.497849   -0.0645908
    0.393466    -0.497849   -0.0821012
    0.409328    -0.612616    -0.111945
    0.417264    -0.612616    -0.081442
    0.372844    -0.612616    0.0333486
    0.344303    -0.612616     0.172162
     0.27345    -0.612616     0.105995
    0.333715    -0.612616    0.0683695
    0.353276    -0.612616    0.0223262
    0.387653    -0.612616   -0.0905349
    0.409328    -0.612616    -0.111945
      0.4051    -0.698697    -0.091178
    0.419362    -0.698697   -0.0606916
    0.395589    -0.698697   -0.0114003
    0.364917    -0.698697     0.224042
    0.313109    -0.698697     0.203943
    0.295125    -0.698697     0.144272
    0.370738    -0.698697    0.0320542
     0.38447    -0.698697   -0.0704276
      0.4051    -0.698697    -0.091178
      0.4051    -0.698697    -0.091178
    0.419362    -0.698697   -0.0606916
    0.395589    -0.698697   -0.0114003
    0.364917    -0.698697     0.224042
     0.25282    -0.698697     0.434207
    0.179868    -0.698697      0.50166
    0.122762    -0.698697     0.574307
   0.0720074    -0.698697     0.584035
   0.0519082    -0.698697     0.613878
-0.000960722    -0.698697     0.632032
-0.000960728    -0.698697     0.569121
   0.0735913    -0.698697     0.534092
    0.169288    -0.698697     0.421882
    0.271327    -0.698697     0.271396
    0.313109    -0.698697     0.203943
    0.295125    -0.698697     0.144272
    0.370738    -0.698697    0.0320542
     0.38447    -0.698697   -0.0704276
      0.4051    -0.698697    -0.091178
    0.416202    -0.727398   -0.0866437
     0.42782    -0.727398   -0.0483748
    0.388707    -0.727398     0.102104
    0.356982    -0.727398     0.292797
    0.247015    -0.727398     0.438742
    0.190971    -0.727398     0.515279
    0.107422    -0.727398     0.591166
 -0.00835723    -0.727398     0.622296
 -0.00835724    -0.727398     0.546409
   0.0804652    -0.727398     0.528256
    0.186203    -0.727398     0.403721
     0.23908    -0.727398     0.299936
    0.360158    -0.727398    0.0975616
    0.402454    -0.727398   -0.0367012
    0.396634    -0.727398   -0.0568084
    0.416202    -0.727398   -0.0866437
    0.423068    -0.784793   -0.0295619
    0.426775    -0.784793    0.0203806
    0.393466    -0.784793     0.092376
    0.340597    -0.784793     0.336268
    0.204718    -0.784793     0.486095
    0.105316    -0.784793     0.563276
 -0.00307516    -0.784793     0.587275
 -0.00465095    -0.784793     0.533433
   0.0847021    -0.784793     0.521116
    0.201535    -0.784793     0.408914
    0.260755    -0.784793     0.270101
    0.341642    -0.784793     0.184479
    0.396634    -0.784793    0.0106445
    0.423068    -0.784793   -0.0295619
    0.387653    -0.842181     0.108592
    0.399287    -0.842181     0.157891
    0.340597    -0.842181     0.325229
    0.251767    -0.842181     0.462089
    0.138616    -0.842181     0.536689
-0.000960728    -0.842181     0.564579
 -0.00465095    -0.842181     0.504249
   0.0587902    -0.842181     0.502955
    0.148674    -0.842181     0.458198
    0.207364    -0.842181     0.369978
    0.257057    -0.842181     0.334957
    0.329502    -0.842181     0.209779
    0.348524    -0.842181     0.144272
    0.387653    -0.842181     0.108592
    0.348524    -0.899568     0.220802
    0.365962    -0.899568     0.238964
    0.343242    -0.899568      0.33302
    0.247015    -0.899568     0.471825
    0.119064    -0.899568     0.550308
 -0.00731208    -0.899568     0.574307
 -0.00731208    -0.899568      0.49842
   0.0492793    -0.899568     0.513985
    0.147613    -0.899568     0.470523
    0.194669    -0.899568     0.386202
    0.276617    -0.899568     0.331717
    0.317853    -0.899568     0.236367
    0.348524    -0.899568     0.220802
    0.306228    -0.956964     0.327818
     0.30675    -0.956964     0.365444
    0.235382    -0.956964      0.48025
    0.105316    -0.956964      0.55096
  -0.0051896    -0.956964     0.569121
 -0.00625085    -0.956964      0.50166
   0.0228287    -0.956964     0.526953
    0.129105    -0.956964     0.493227
    0.206825    -0.956964     0.446532
    0.275556    -0.956964     0.351173
    0.306228    -0.956964     0.327818
    0.230092    -0.985649     0.419945
    0.227447    -0.985649     0.462089
    0.177215    -0.985649     0.515279
    0.113243    -0.985649     0.553548
  -0.0051896    -0.985649     0.569121
 -0.00465095    -0.985649     0.530852
    0.091568    -0.985649     0.522419
    0.193608    -0.985649     0.446532
    0.230092    -0.985649     0.419945
    0.171933           -1      0.49063
    0.100548           -1     0.536689
    0.171933           -1      0.49063
    0.422023    -0.196538      0.23377
    0.419362    -0.210889     0.215616
    0.426775    -0.210889     0.235072
    0.420962    -0.210889     0.251932
    0.412496    -0.210889     0.229879
    0.419362    -0.210889     0.215616
    0.395589    -0.268284     0.176053
      0.4051    -0.268284      0.23377
    0.395589    -0.268284     0.268807
    0.383939    -0.268284     0.209779
    0.395589    -0.268284     0.176053
    0.378665    -0.325672     0.102104
    0.400332    -0.325672     0.209779
    0.380771    -0.325672     0.259079
    0.358035    -0.325672     0.195509
    0.378665    -0.325672     0.102104
  0.00210234            1   -0.0181697
  0.00328416     0.995602    -0.129559
   -0.107511     0.995602   -0.0175747
  0.00328418     0.995602    0.0932202
    0.109312     0.995602   -0.0175747
  0.00328416     0.995602    -0.129559
  0.00210231     0.929701    -0.311835
   -0.160524     0.929701    -0.184374
   -0.271319     0.929701   -0.0163768
    -0.16292     0.929701     0.152191
 0.000904452     0.929701     0.260606
     0.17067     0.929701     0.152191
    0.277888     0.929701   -0.0128072
    0.169472     0.929701    -0.181986
  0.00210231     0.929701    -0.311835
  0.00328413     0.797891    -0.522105
   -0.163507     0.797891    -0.462547
     -0.3291     0.797891    -0.349364
   -0.447638     0.797891    -0.015195
     -0.3291     0.797891     0.262986
   -0.163507     0.797891     0.421432
 -0.00148332     0.797891     0.464919
    0.165895     0.797891      0.42382
    0.334479     0.797891     0.259995
    0.447654     0.797891   -0.0163769
    0.333289     0.797891    -0.350562
    0.167093     0.797891    -0.465514
  0.00328413     0.797891    -0.522105
  0.00328412     0.666056    -0.638857
   -0.217124     0.666056    -0.578704
   -0.394029     0.666056    -0.469099
   -0.561415     0.666056   -0.0217473
    -0.44168     0.666056     0.315397
   -0.284424     0.666056     0.478023
 -0.00148331     0.666056     0.547117
    0.266568     0.666056     0.476834
    0.439903     0.666056     0.316595
    0.562613     0.666056   -0.0151951
    0.392252     0.666056    -0.463737
    0.223684     0.666056    -0.575714
  0.00328412     0.666056    -0.638857
  0.00387905     0.534237    -0.691871
   -0.282631     0.534237      -0.6329
   -0.507212     0.534237    -0.464332
   -0.613834     0.534237   -0.0193675
   -0.503031     0.534237     0.369608
   -0.330893     0.534237     0.538176
  0.00090448     0.534237      0.58881
    0.330298     0.534237     0.536995
    0.496503     0.534237     0.370806
     0.61623     0.534237   -0.0181697
    0.497684     0.534237    -0.467902
    0.277888     0.534237    -0.629925
  0.00387905     0.534237    -0.691871
  0.00387905     0.402418     -0.74072
   -0.280251     0.402418    -0.693061
   -0.507212     0.402418    -0.579894
    -0.66565     0.402418   -0.0217473
   -0.505419     0.402418     0.480403
   -0.342197     0.402418     0.596561
  -0.0014833     0.402418     0.620977
    0.330893     0.402418     0.593578
    0.497685     0.402418     0.478023
    0.651371     0.402418   -0.0181697
    0.495313     0.402418    -0.579894
    0.277888     0.402418    -0.694267
  0.00387905     0.402418     -0.74072
 -0.00028551     0.336501    -0.751445
   -0.285622     0.336501    -0.676387
   -0.511971     0.336501    -0.570946
   -0.616214     0.336501     -0.34044
     -0.6734     0.336501   -0.0116173
   -0.618007     0.336501     0.206387
   -0.507212     0.336501     0.438107
   -0.529835     0.336501     0.480403
   -0.527455     0.336501      0.51376
   -0.504221     0.336501     0.541159
   -0.424419     0.336501     0.601328
   -0.335661     0.336501     0.650177
   -0.226056     0.336501     0.669826
   -0.115856     0.336501     0.685319
  -0.0080276     0.336501     0.663266
    0.106329     0.336501     0.685319
    0.213562     0.336501     0.669826
    0.323159     0.336501     0.650177
    0.400002     0.336501      0.61026
    0.491727     0.336501     0.539366
     0.51735     0.336501      0.51495
     0.51735     0.336501     0.485766
     0.48995     0.336501     0.436322
    0.602522     0.336501     0.208782
    0.665666     0.336501   -0.0116174
    0.609677     0.336501    -0.341622
    0.495313     0.336501    -0.569764
    0.280275     0.336501    -0.679369
 -0.00028551     0.336501    -0.751445
  0.00328411     0.270583    -0.766335
   -0.272517     0.270583    -0.677585
   -0.496487     0.270583    -0.568574
   -0.603704     0.270583    -0.344597
   -0.659105     0.270583   -0.0151949
   -0.594772     0.270583      0.20342
   -0.496487     0.270583     0.348167
   -0.482787     0.270583     0.426192
   -0.506014     0.270583     0.459556
   -0.525068     0.270583     0.429182
   -0.545915     0.270583     0.467299
   -0.544146     0.270583     0.504828
   -0.508385     0.270583     0.520312
   -0.476227     0.270583     0.507803
   -0.476227     0.270583     0.481585
   -0.388674     0.270583     0.414872
   -0.275492     0.270583     0.373773
   -0.226056     0.270583     0.395223
   -0.167085     0.270583     0.483973
   -0.127176     0.270583     0.583456
    -0.14266     0.270583     0.612037
   -0.123598     0.270583     0.642427
  -0.0812932     0.270583     0.669826
  -0.0014833     0.270583     0.682336
   0.0759549     0.270583     0.667446
    0.118252     0.270583     0.641229
    0.134926     0.270583     0.616813
    0.120639     0.270583     0.587026
    0.164705     0.270583     0.485766
    0.218322     0.270583     0.396413
    0.270145     0.270583     0.370806
    0.386303     0.270583       0.4125
     0.47982     0.270583     0.476834
      0.4822     0.270583      0.50363
     0.51735     0.270583     0.526865
    0.548327     0.270583      0.50006
    0.549508     0.270583     0.464919
    0.527464     0.270583     0.427993
    0.505435     0.270583     0.461341
      0.4822     0.270583     0.425002
    0.494115     0.270583     0.350554
    0.593598     0.270583     0.201024
    0.660303     0.270583   -0.0151951
    0.609677     0.270583    -0.344002
    0.492917     0.270583    -0.566774
    0.280275     0.270583    -0.675189
  0.00328411     0.270583    -0.766335
  0.00626683     0.204674    -0.758584
   -0.270129     0.204674    -0.675189
   -0.491719     0.204674    -0.542365
   -0.600729     0.204674    -0.341622
   -0.648388     0.204674   -0.0104274
   -0.568562     0.204674     0.205197
   -0.460734     0.204674     0.349356
   -0.490529     0.204674     0.401775
   -0.520895     0.204674      0.42739
   -0.547113     0.204674     0.399396
   -0.556045     0.204674     0.469083
   -0.523886     0.204674     0.481585
   -0.498271     0.204674     0.466101
   -0.505419     0.204674     0.444667
   -0.415471     0.204674     0.360676
   -0.325531     0.204674     0.297533
   -0.271319     0.204674     0.264168
   -0.214736     0.204674     0.315397
   -0.161722     0.204674     0.430356
   -0.119425     0.204674     0.548901
   -0.136108     0.204674     0.583456
  -0.0967857     0.204674     0.592388
  -0.0646189     0.204674     0.612037
  -0.0288825     0.204674     0.647789
   0.0372358     0.204674     0.647789
   0.0729802     0.204674     0.612037
    0.102767     0.204674     0.593578
    0.134926     0.204674     0.584646
    0.121813     0.204674      0.54772
    0.167093     0.204674     0.427993
    0.222494     0.204674     0.320759
    0.277888     0.204674     0.264168
    0.338652     0.204674     0.292773
    0.422039     0.204674     0.363048
    0.509599     0.204674     0.449434
     0.50841     0.204674     0.472661
    0.535214     0.204674     0.484568
    0.563811     0.204674     0.473851
    0.554879     0.204674      0.40594
    0.536412     0.204674     0.429182
    0.500659     0.204674     0.411905
    0.466121     0.204674     0.354124
    0.579295     0.204674     0.211154
    0.653751     0.204674   -0.0140132
    0.610272     0.204674    -0.339243
    0.500659     0.204674    -0.537598
    0.281465     0.204674    -0.672817
  0.00626683     0.204674    -0.758584
  0.00744867     0.138773    -0.746083
   -0.274302     0.138773    -0.665067
   -0.501849     0.138773     -0.54653
   -0.610256     0.138773     -0.33507
   -0.640622     0.138773   -0.0151949
   -0.550682     0.138773     0.145639
   -0.459552     0.138773     0.288601
   -0.496487     0.138773     0.366039
   -0.532826     0.138773     0.381523
   -0.570347     0.138773     0.333872
   -0.566175     0.138773     0.420242
   -0.532826     0.138773     0.457169
   -0.513756     0.138773     0.442874
   -0.514946     0.138773      0.41607
    -0.44168     0.138773     0.315397
   -0.382114     0.138773     0.258814
   -0.275492     0.138773     0.204618
   -0.221288     0.138773     0.315397
    -0.13134     0.138773      0.42382
   -0.123003     0.138773     0.535797
   -0.123598     0.138773     0.565584
  -0.0711793     0.138773     0.579878
  -0.0455568     0.138773     0.619787
 -0.00267317     0.138773     0.637659
   0.0432013     0.138773     0.618011
   0.0628502     0.138773     0.578093
    0.119442     0.138773     0.565584
    0.121813     0.138773     0.535797
    0.134926     0.138773      0.42739
    0.220106     0.138773     0.313025
    0.275508     0.138773     0.207585
    0.386303     0.138773     0.261796
    0.441101     0.138773      0.31838
     0.51616     0.138773      0.42382
    0.514962     0.138773     0.452401
    0.536412     0.138773     0.461341
    0.567381     0.138773      0.42739
    0.572743     0.138773     0.342804
    0.535214     0.138773     0.387489
    0.496503     0.138773     0.371996
    0.461948     0.138773      0.29098
    0.551888     0.138773     0.152191
    0.633507     0.138773   -0.0151951
    0.606108     0.138773    -0.329112
     0.48995     0.138773    -0.542365
    0.277888     0.138773    -0.658506
  0.00744867     0.138773    -0.746083
  0.00328411    0.0728716    -0.725228
   -0.274302    0.0728716    -0.618613
   -0.498272    0.0728716    -0.502456
   -0.587022    0.0728716      -0.3315
   -0.608463    0.0728716  -0.00983243
   -0.527456    0.0728716     0.162321
    -0.44168    0.0728716     0.285015
   -0.461924    0.0728716     0.357107
    -0.54175    0.0728716     0.391653
   -0.576297    0.0728716      0.31838
   -0.582849    0.0728716      0.42382
   -0.553078    0.0728716     0.455979
   -0.508385    0.0728716     0.440486
   -0.506014    0.0728716      0.41369
   -0.389856    0.0728716     0.357107
   -0.279061    0.0728716     0.316595
    -0.14266    0.0728716     0.430356
   -0.108106    0.0728716     0.539366
   -0.111683    0.0728716     0.593578
  -0.0592565    0.0728716     0.629917
  -0.0259079    0.0728716     0.682336
   0.0199585    0.0728716     0.682336
   0.0515304    0.0728716     0.631107
    0.107527    0.0728716     0.593578
     0.10813    0.0728716     0.539366
    0.138504    0.0728716     0.432752
    0.273715    0.0728716      0.31838
     0.38332    0.0728716     0.351728
    0.505435    0.0728716     0.421432
    0.505435    0.0728716     0.445849
    0.548327    0.0728716     0.462531
    0.580493    0.0728716     0.432752
    0.577511    0.0728716     0.323147
    0.535214    0.0728716     0.398206
    0.464328    0.0728716     0.363048
    0.441101    0.0728716     0.288601
    0.528669    0.0728716     0.167684
    0.606108    0.0728716  -0.00864268
    0.585245    0.0728716    -0.330302
    0.495313    0.0728716    -0.505431
    0.276698    0.0728716    -0.616226
  0.00328411    0.0728716    -0.725228
  0.00983645   0.00695443    -0.706174
   -0.271319   0.00695443    -0.617407
   -0.472054   0.00695443    -0.507802
   -0.572735   0.00695443    -0.313628
   -0.579279   0.00695443   -0.0229452
   -0.454198   0.00695443     0.206387
   -0.419635   0.00695443     0.315397
   -0.442878   0.00695443     0.370806
   -0.486365   0.00695443     0.389265
   -0.553673   0.00695443     0.358289
   -0.612628   0.00695443     0.198653
   -0.607274   0.00695443    0.0378187
   -0.553673   0.00695443    0.0128153
   -0.581659   0.00695443    -0.127172
   -0.643621   0.00695443   -0.0771407
   -0.690082   0.00695443     0.122412
   -0.598341   0.00695443     0.373773
   -0.518532   0.00695443     0.467894
   -0.466097   0.00695443     0.457169
   -0.465518   0.00695443     0.425002
   -0.362457   0.00695443     0.386283
   -0.289191   0.00695443     0.407138
   -0.223668   0.00695443       0.4935
   -0.220082   0.00695443     0.535797
   -0.103338   0.00695443     0.613243
  -0.0681966   0.00695443     0.684121
 -0.00564785   0.00695443     0.744282
   0.0604705   0.00695443     0.678758
   0.0896626   0.00695443     0.619192
    0.217132   0.00695443     0.535797
    0.220106   0.00695443     0.498284
    0.290397   0.00695443     0.408336
    0.354144   0.00695443     0.394025
    0.461948   0.00695443     0.427993
    0.461948   0.00695443     0.458366
    0.519729   0.00695443     0.469083
    0.597168   0.00695443     0.376161
    0.687108   0.00695443     0.136699
    0.634689   0.00695443   -0.0759429
    0.579295   0.00695443    -0.127172
    0.560828   0.00695443    0.0223342
    0.607298   0.00695443    0.0479406
     0.60491   0.00695443     0.206387
    0.551888   0.00695443     0.366039
      0.4822   0.00695443     0.395223
    0.437532   0.00695443     0.374971
    0.414289   0.00695443     0.317182
    0.445274   0.00695443     0.206387
    0.580493   0.00695443   -0.0181697
    0.570355   0.00695443    -0.308266
    0.477441   0.00695443    -0.505431
    0.267766   0.00695443    -0.616226
  0.00983645   0.00695443    -0.706174
  0.00506088   -0.0369904    -0.697233
   -0.266552   -0.0369904    -0.588826
    -0.45776   -0.0369904    -0.479221
     -0.5495   -0.0369904     -0.33388
   -0.550682   -0.0369904  -0.00506491
   -0.429757   -0.0369904     0.217707
   -0.392236   -0.0369904     0.327312
   -0.426188   -0.0369904     0.382721
   -0.489934   -0.0369904     0.440486
   -0.556045   -0.0369904     0.376161
   -0.634673   -0.0369904     0.211154
   -0.618007   -0.0369904    0.0145921
   -0.683522   -0.0369904     0.208783
   -0.672805   -0.0369904     0.271926
   -0.577495   -0.0369904     0.436322
   -0.467286   -0.0369904     0.547117
   -0.218306   -0.0369904     0.593578
  -0.0955958   -0.0369904     0.653152
  -0.0854658   -0.0369904     0.719865
  -0.0259078   -0.0369904     0.766335
   0.0318653   -0.0369904     0.765129
   0.0807225   -0.0369904     0.709735
    0.101569   -0.0369904     0.654334
    0.226659   -0.0369904     0.587628
    0.467311   -0.0369904     0.543539
    0.582873   -0.0369904     0.431562
    0.678175   -0.0369904     0.266556
    0.690082   -0.0369904     0.205197
    0.618023   -0.0369904    0.0128152
    0.633507   -0.0369904     0.208782
    0.562613   -0.0369904      0.37854
    0.496503   -0.0369904     0.431562
    0.433367   -0.0369904     0.379722
    0.402382   -0.0369904     0.321949
    0.433367   -0.0369904     0.208783
    0.557251   -0.0369904   -0.0104275
     0.55725   -0.0369904     -0.33388
    0.457783   -0.0369904    -0.479221
    0.258825   -0.0369904    -0.594189
  0.00506088   -0.0369904    -0.697233
  0.00328412   -0.0809275    -0.657333
   -0.220082   -0.0809275    -0.570946
    -0.44168   -0.0809275    -0.455987
   -0.527456   -0.0809275    -0.345779
    -0.53818   -0.0809275   -0.0181696
   -0.387477   -0.0809275     0.270728
   -0.388674   -0.0809275     0.376161
   -0.467286   -0.0809275     0.457169
    -0.54532   -0.0809275     0.425002
    -0.66684   -0.0809275     0.208783
   -0.618007   -0.0809275     0.411905
   -0.489934   -0.0809275     0.515553
    -0.33029   -0.0809275      0.55785
   -0.182553   -0.0809275     0.583456
   -0.106916   -0.0809275     0.662084
  -0.0789135   -0.0809275      0.69782
  -0.0515142   -0.0809275     0.710925
  -0.0592565   -0.0809275     0.461341
-0.000285407   -0.0809275     0.431562
   0.0527283   -0.0809275     0.463721
   0.0384337   -0.0809275     0.706753
   0.0628503   -0.0809275     0.686509
    0.107527   -0.0809275     0.662084
    0.169473   -0.0809275     0.583456
    0.322564   -0.0809275     0.562609
    0.483985   -0.0809275     0.519122
    0.613842   -0.0809275     0.408336
    0.665071   -0.0809275     0.211154
    0.536412   -0.0809275     0.430356
    0.465518   -0.0809275     0.459556
    0.386303   -0.0809275     0.385093
     0.38332   -0.0809275     0.266556
    0.527464   -0.0809275    -0.015195
    0.527463   -0.0809275    -0.341622
    0.445274   -0.0809275    -0.454797
    0.222494   -0.0809275    -0.569764
  0.00328412   -0.0809275    -0.657333
  0.00328412    -0.124864    -0.601923
   -0.212348    -0.124864    -0.538787
   -0.423221    -0.124864    -0.421448
   -0.504221    -0.124864    -0.319593
   -0.500651    -0.124864   -0.0140131
   -0.387477    -0.124864     0.211154
   -0.365432    -0.124864     0.320759
   -0.391054    -0.124864     0.426192
   -0.458354    -0.124864     0.484568
   -0.545915    -0.124864     0.426192
   -0.615024    -0.124864     0.283246
    -0.58584    -0.124864      0.41607
   -0.499453    -0.124864       0.5227
   -0.338627    -0.124864     0.533417
   -0.221288    -0.124864     0.534615
    -0.14504    -0.124864     0.572144
   -0.094406    -0.124864     0.662084
  -0.0592565    -0.124864     0.401775
 -0.00446605    -0.124864     0.377359
   0.0574958    -0.124864     0.400577
    0.084879    -0.124864     0.656722
    0.129564    -0.124864     0.573326
    0.220106    -0.124864     0.531632
    0.330298    -0.124864     0.532227
     0.48995    -0.124864     0.517933
    0.577511    -0.124864      0.42382
    0.608487    -0.124864      0.28442
    0.528669    -0.124864     0.430356
    0.444084    -0.124864       0.4935
     0.38451    -0.124864     0.433942
     0.36306    -0.124864     0.324345
     0.38451    -0.124864     0.212352
    0.496503    -0.124864   -0.0104275
    0.491727    -0.124864    -0.318396
    0.424419    -0.124864    -0.417871
    0.203432    -0.124864    -0.542365
  0.00328412    -0.124864    -0.601923
  0.00387906    -0.190798     -0.54653
   -0.160524    -0.190798    -0.488756
   -0.332075    -0.190798     -0.40893
    -0.44168    -0.190798    -0.302911
    -0.44168    -0.190798   -0.0181696
   -0.332075    -0.190798     0.194488
     -0.3291    -0.190798     0.316595
   -0.389856    -0.190798      0.42382
   -0.426188    -0.190798     0.458367
   -0.497668    -0.190798     0.435124
    -0.54175    -0.190798     0.356504
   -0.525068    -0.190798     0.451806
   -0.419635    -0.190798      0.49231
   -0.276674    -0.190798     0.484568
   -0.193889    -0.190798     0.467894
   -0.133728    -0.190798      0.51019
   -0.103338    -0.190798     0.592388
   -0.054497    -0.190798     0.338632
   0.0032842    -0.190798     0.311835
   0.0562979    -0.190798     0.339829
    0.105139    -0.190798     0.587628
    0.143858    -0.190798     0.511372
    0.196888    -0.190798     0.462531
    0.290992    -0.190798     0.482791
    0.425601    -0.190798     0.497086
    0.527464    -0.190798     0.451806
    0.539378    -0.190798     0.355314
     0.50841    -0.190798     0.442874
    0.419651    -0.190798     0.461341
    0.389872    -0.190798     0.425002
    0.330893    -0.190798     0.315397
    0.341023    -0.190798     0.202222
    0.451818    -0.190798   -0.0140132
    0.451818    -0.190798    -0.290401
    0.336859    -0.190798     -0.40893
    0.165895    -0.190798     -0.49768
  0.00387906    -0.190798     -0.54653
  0.00328414    -0.256691    -0.349364
   -0.177199    -0.256691    -0.298136
   -0.275492    -0.256691    -0.230835
   -0.335661    -0.256691    -0.121825
   -0.338627    -0.256691   -0.0128072
   -0.223668    -0.256691     0.212352
   -0.290381    -0.256691     0.374971
   -0.338033    -0.256691     0.430356
   -0.388674    -0.256691     0.461341
   -0.402358    -0.256691     0.486956
    -0.37438    -0.256691      0.50601
   -0.332075    -0.256691     0.517933
   -0.220082    -0.256691     0.485766
   -0.149204    -0.256691      0.52389
   -0.114055    -0.256691     0.584646
  -0.0681966    -0.256691     0.363048
 -0.00564789    -0.256691     0.316595
   0.0604705    -0.256691     0.356504
    0.109312    -0.256691     0.587628
    0.149229    -0.256691      0.52389
    0.218322    -0.256691     0.485766
    0.330893    -0.256691      0.51495
    0.377958    -0.256691     0.502448
    0.401192    -0.256691     0.476834
    0.387493    -0.256691     0.461341
    0.326729    -0.256691     0.431562
    0.270145    -0.256691     0.377359
    0.223684    -0.256691     0.206387
    0.330893    -0.256691    -0.015195
    0.330893    -0.256691     -0.12956
    0.277888    -0.256691    -0.230835
    0.165895    -0.256691    -0.291583
  0.00328414    -0.256691    -0.349364
 -0.00148335    -0.322608     0.101557
   -0.115856    -0.322608     0.123594
   -0.224858    -0.322608     0.216517
   -0.289191    -0.322608     0.387489
   -0.332075    -0.322608     0.436322
   -0.361259    -0.322608     0.466101
   -0.324333    -0.322608     0.494698
   -0.288002    -0.322608     0.495888
   -0.224858    -0.322608     0.471471
   -0.140264    -0.322608     0.525667
  -0.0955958    -0.322608     0.604311
  -0.0735591    -0.322608      0.32851
 -0.00267321    -0.322608     0.270728
   0.0586937    -0.322608     0.326122
   0.0831022    -0.322608     0.602518
    0.133736    -0.322608       0.5227
    0.218917    -0.322608     0.464919
    0.290397    -0.322608     0.499465
    0.327927    -0.322608     0.498284
    0.360093    -0.322608     0.470281
    0.314814    -0.322608     0.438107
    0.271343    -0.322608     0.379722
    0.218322    -0.322608     0.207585
    0.114079    -0.322608     0.125379
 -0.00148335    -0.322608     0.101557
 -0.00148334    -0.388517     0.193298
   -0.094406    -0.388517     0.194488
   -0.133728    -0.388517     0.170055
   -0.172439    -0.388517     0.170055
   -0.204606    -0.388517     0.211154
   -0.285622    -0.388517     0.373773
   -0.332075    -0.388517     0.435124
   -0.338033    -0.388517     0.464919
   -0.281441    -0.388517     0.490533
   -0.196864    -0.388517     0.502448
   -0.155162    -0.388517     0.571541
  -0.0967857    -0.388517     0.603708
  -0.0425822    -0.388517     0.620977
 -0.00564786    -0.388517     0.660886
   0.0342611    -0.388517     0.626935
   0.0938191    -0.388517     0.604311
    0.148031    -0.388517     0.563799
    0.183767    -0.388517      0.50601
    0.220106    -0.388517     0.459556
    0.279086    -0.388517       0.4935
    0.323159    -0.388517     0.469083
    0.322564    -0.388517     0.430356
    0.264783    -0.388517     0.371996
    0.191517    -0.388517     0.208783
    0.162928    -0.388517     0.180185
    0.125986    -0.388517     0.170055
   0.0848789    -0.388517     0.194488
 -0.00148334    -0.388517     0.193298
 -0.00148331    -0.454419     0.490533
  -0.0556949    -0.454419     0.483973
   -0.148015    -0.454419     0.426192
   -0.161722    -0.454419     0.321949
   -0.167085    -0.454419     0.211154
   -0.235583    -0.454419     0.206387
   -0.265957    -0.454419     0.268936
   -0.275492    -0.454419     0.370806
   -0.286804    -0.454419     0.430356
   -0.266552    -0.454419     0.464919
   -0.226056    -0.454419     0.490533
   -0.177199    -0.454419     0.495888
   -0.158145    -0.454419     0.539969
   -0.114055    -0.454419     0.570351
  -0.0592565    -0.454419     0.576896
  -0.0014833    -0.454419     0.626935
   0.0515304    -0.454419     0.579878
    0.107527    -0.454419     0.570351
    0.140288    -0.454419     0.543539
    0.173653    -0.454419     0.495888
    0.218917    -0.454419     0.491723
    0.255851    -0.454419     0.469083
     0.28563    -0.454419     0.429182
    0.275508    -0.454419     0.373773
    0.261205    -0.454419     0.258813
    0.231418    -0.454419     0.211154
    0.174835    -0.454419     0.211154
    0.158169    -0.454419     0.321949
    0.124788    -0.454419     0.432752
   0.0515304    -0.454419     0.484568
 -0.00148331    -0.454419     0.490533
 0.000904479    -0.520337     0.578093
  -0.0556949    -0.520337     0.559031
   -0.155765    -0.520337       0.4935
   -0.183759    -0.520337     0.382721
   -0.192691    -0.520337     0.244519
   -0.257033    -0.520337     0.243321
   -0.274302    -0.520337     0.278479
   -0.265957    -0.520337     0.333872
   -0.283234    -0.520337     0.391653
   -0.275492    -0.520337     0.452401
   -0.241532    -0.520337      0.50006
   -0.178397    -0.520337     0.536995
   -0.148015    -0.520337     0.594768
  -0.0866637    -0.520337     0.607873
  -0.0622472    -0.520337      0.64541
 -0.00267317    -0.520337     0.666844
   0.0562979    -0.520337     0.643022
    0.084879    -0.520337     0.607873
     0.15041    -0.520337     0.594768
    0.191517    -0.520337     0.531632
    0.232616    -0.520337     0.502448
    0.272525    -0.520337     0.449434
    0.272525    -0.520337     0.385093
    0.248101    -0.520337     0.329699
    0.260015    -0.520337     0.279668
    0.240366    -0.520337     0.242131
    0.177215    -0.520337     0.244519
    0.171257    -0.520337     0.381523
    0.128374    -0.520337       0.4935
   0.0562979    -0.520337     0.552479
 0.000904479    -0.520337     0.578093
 -0.00564786    -0.586246     0.601328
   -0.119425    -0.586246     0.555462
   -0.177199    -0.586246     0.497086
   -0.200433    -0.586246     0.382721
   -0.191501    -0.586246     0.242131
   -0.240342    -0.586246     0.240949
   -0.263569    -0.586246     0.279668
   -0.246887    -0.586246     0.329699
   -0.262387    -0.586246     0.391653
   -0.237955    -0.586246     0.439304
    -0.23498    -0.586246      0.50363
   -0.184957    -0.586246     0.552479
   -0.176017    -0.586246     0.600138
   -0.112865    -0.586246     0.619192
  -0.0735591    -0.586246     0.648979
 -0.00921747    -0.586246     0.662084
   0.0515304    -0.586246     0.650177
    0.105139    -0.586246     0.624555
    0.155773    -0.586246     0.607873
    0.174835    -0.586246     0.551289
    0.217132    -0.586246        0.509
    0.229047    -0.586246     0.442874
    0.257033    -0.586246     0.389265
    0.242738    -0.586246     0.326122
    0.257033    -0.586246      0.28085
    0.240366    -0.586246     0.239751
    0.187337    -0.586246     0.239751
    0.191517    -0.586246     0.383895
    0.169473    -0.586246     0.499465
    0.100379    -0.586246     0.553677
 -0.00564786    -0.586246     0.601328
 -0.00387109    -0.652163     0.620977
   -0.121805    -0.652163     0.575706
   -0.178991    -0.652163      0.51495
   -0.208176    -0.652163     0.426192
   -0.210555    -0.652163     0.264168
   -0.226056    -0.652163     0.264168
   -0.243325    -0.652163      0.28442
   -0.229022    -0.652163     0.338632
   -0.239152    -0.652163     0.401775
   -0.217124    -0.652163     0.449434
   -0.217124    -0.652163      0.50601
   -0.170654    -0.652163     0.548901
   -0.146238    -0.652163     0.604311
   -0.103338    -0.652163      0.61026
  -0.0658168    -0.652163      0.64541
 -0.00921748    -0.652163     0.648979
    0.035451    -0.652163     0.646592
   0.0771448    -0.652163     0.615623
    0.142668    -0.652163     0.604311
    0.173653    -0.652163     0.551289
    0.214736    -0.652163      0.51257
    0.215934    -0.652163     0.449434
    0.246903    -0.652163     0.386283
    0.232616    -0.652163     0.336244
    0.243333    -0.652163     0.295145
    0.234996    -0.652163     0.262986
    0.211166    -0.652163     0.255244
    0.201647    -0.652163     0.432752
    0.172455    -0.652163     0.516735
    0.111699    -0.652163     0.579283
 -0.00387109    -0.652163     0.620977
   -0.234666    -0.597381     0.299856
    -0.21796    -0.597381     0.360258
